399.55942680072536,374.544598666637,421.24793366911075,0.4871209800934359,-0.0011404061480959325,-0.8733337564909692
399.4010258292247,370.26922008452937,421.16496236716023,0.4889777100047695,-0.0011466575795084017,-0.8722955257794729
399.2579452161408,365.9931531488381,421.09021552182236,0.49063251779530825,-0.0011522310674540875,-0.8713658272192017
399.12989487718664,361.7164592759324,421.0236438987168,0.4920910294748931,-0.0011571449152699036,-0.8705429798269496
399.0166081825131,357.4392339345655,420.9651957195134,0.49335830580067896,-0.0011614156168337471,-0.8698254038663442
398.9178384024118,353.16155672118003,420.91481573695586,0.49443890355596504,-0.0011650580550969748,-0.8692116044382423
398.8333571569306,348.8834842309013,420.8724452538006,0.49533691072207425,-0.0011680856138045516,-0.868700167176403
398.76295377933815,344.60508387421993,420.8380225031036,0.4960559698365571,-0.00117051025033854,-0.8682897584880674
398.7064336036608,340.3264192040336,420.811482388549,0.4965993113370368,-0.0011723426030690405,-0.8679791181776216
398.66361688094764,336.0475595366133,420.79275646578725,0.4969697783732716,-0.0011735920707014558,-0.8677670551854759
398.63433743753814,331.76855290984406,420.78177275187454,0.4971698520578529,-0.0011742668937750618,-0.8676524415352238
398.6184420815817,327.48946206829623,420.7784558124878,0.49720166856248676,-0.001174374209258599,-0.8676342095744587
398.6157894708153,323.21035104249654,420.7827265494212,0.4970670399593879,-0.001173920118314656,-0.8677113458389075
398.62624936461293,318.93125874266644,420.79450217389257,0.4967674687434062,-0.0011729097332358036,-0.8678828874226214
398.6497019000475,314.65224773260593,420.8136960456304,0.49630416412669814,-0.0011713472307996336,-0.8681479163231138
398.6860369634064,310.3733608104245,420.84021764978706,0.49567805272340487,-0.0011692358871048642,-0.8685055560765135
398.73515332656933,306.09466036397896,420.87397229072536,0.494889794743547,-0.0011665781313545645,-0.8689549643992796
398.7969584756833,301.8161829720639,420.91486126199555,0.49393978749259376,-0.0011633755571733974,-0.8694953322986181
398.8713675902846,297.53798397705776,420.9627813807485,0.4928281825596835,-0.0011596289803963867,-0.8701258746500687
398.9583036904606,293.26009389643855,421.01762527774366,0.49155488425436933,-0.001155338433939824,-0.8708458307638479
399.05769618371966,288.98257188838915,421.07928062631197,0.490119571705456,-0.0011505032426978607,-0.8716544508998672
399.169481441021,284.70545277255394,421.14763064046815,0.48852169061264133,-0.001145121996430879,-0.8725509993671317
399.29360158191906,280.4287838299116,421.22255342233404,0.4867604709574962,-0.0011391926103715756,-0.873534742384888
399.4300041821669,276.15261535063655,421.30392187757576,0.4848349309085649,-0.001132712339534283,-0.8746049432364552
399.5786427206868,271.87697571647396,421.3916040419167,0.48274387027047416,-0.0011256777580861761,-0.8757608626593612
399.7394752299647,267.60190373470994,421.48546231964394,0.48048588910237283,-0.0011180848236493034,-0.8770017447302082
399.912463675438,263.3274505482498,421.58535316674113,0.4780593957844387,-0.0011099289062324392,-0.8783268082895116
400.09757477784154,259.0536487260746,421.6911275927508,0.4754625948405906,-0.0011012047493225597,-0.8797352489559301
400.2947787038091,254.78053731327446,421.8026304131678,0.47269350464245685,-0.0010919065316374028,-0.8812262243084676
400.50404931423304,250.50814751780064,421.91970039728636,0.46974995325423147,-0.001082027855579022,-0.882798850607185
400.7253629981376,246.23651950865468,422.0421696116402,0.46662959423330314,-0.00107156180286304,-0.8844521883861024
400.958699590971,241.96567686220033,422.16986392524643,0.46332989322759527,-0.0010605008923079277,-0.8861852432643881
401.20404022001316,237.69566044753947,422.30260181432,0.45984815811620205,-0.001048837183815546,-0.8879969433605605
401.46136830010994,233.42650179349982,422.4401949106118,0.4561815250061431,-0.0010365622344236753,-0.8898861397851997
401.7306682866516,229.15823803378936,422.5824473245385,0.45232697630765817,-0.0010236671620074114,-0.8918515900136708
402.01192677885626,224.89088797847802,422.72915622656427,0.44828132569378565,-0.0010101425982409348,-0.8938919580386397
402.3051294690843,220.624492949064,422.8801102522181,0.444041263146635,-0.0009959788425997632,-0.8960057838257998
402.61026260902423,216.3590859862618,423.0350903052397,0.439603336005701,-0.0009811658023027461,-0.8981914853116384
402.92731323158273,212.09468407286954,423.1938696782049,0.4349639481062267,-0.0009656929930045316,-0.9004473506457149
403.2562662285668,207.83132175486463,423.35621261939815,0.43011940579917207,-0.0009495496958164277,-0.9027715076974583
403.59710715062994,203.56900716834133,423.52187578783133,0.4250658812221551,-0.0009327248382918559,-0.9051619339351432
403.9498164497658,199.3077882090318,423.69060552172755,0.41979950288950113,-0.0009152072994954834,-0.907616405630334
404.3143743522075,195.04768334835387,423.8621403380521,0.4143162904047658,-0.0008969856957421984,-0.9101325216263262
404.6907586749335,190.78870367204303,424.03620997286106,0.40861219434400087,-0.0008780485166384468,-0.9127076770051749
405.0789417099936,186.5308806367022,424.2125341112076,0.40268315297341384,-0.0008583843162516335,-0.9153390308993471
405.4788935196699,182.27422137012672,424.3908241137111,0.39652505338550315,-0.0008379815866648517,-0.9180235181216679
405.890576547498,178.01875973448915,424.57078082801013,0.3901338269126871,-0.0008168290765400141,-0.9207578019700519
406.3139503100682,173.76449869632182,424.7520969682842,0.3835053916837412,-0.0007949156025829889,-0.9235382951771327
406.74896632696874,169.51145577179307,424.93445521214244,0.37663574785461396,-0.0007722303661357122,-0.9263611159252407
407.1955692524076,165.25964277432126,425.1175291044375,0.3695209793987546,-0.0007487629595661323,-0.9292220860150793
407.65369514127116,161.00907457271643,425.30098278653463,0.3621573030207161,-0.0007245035276821364,-0.9321167110203525
408.1232722077638,156.75975398761807,425.48447181005184,0.35454107980295235,-0.0006994428053270689,-0.9350401774853947
408.6042167662842,152.51170061815696,425.6676421204118,0.3466689072985666,-0.0006735724187594026,-0.9379873213496088
409.0964369505632,148.26490910909598,425.8501321567632,0.33853758813199597,-0.000646884779498832,-0.9409526465034533
409.5998282285183,144.01938124133267,426.0315718410337,0.33014423456362724,-0.000619373424120941,-0.9439302944396678
410.1142739568777,139.7751125327643,426.21158361367054,0.321486293864752,-0.000591033092045587,-0.9469140475972412
410.6396431157841,135.53210296739536,426.38978252954655,0.31256162312289903,-0.0005618599638082379,-0.9498973186951101
411.1757896420425,131.2903538452074,426.5657770548327,0.3033685403357242,-0.0005318518196021113,-0.9528731530839842
411.72255304744897,127.0498551691104,426.7391703502321,0.2939058552884134,-0.0005010081301483504,-0.9558342414969447
412.2797561229198,122.81059651563527,426.9095606793127,0.2841729521834163,-0.0004693303145792979,-0.9587729204438438
412.8472049564219,118.5725597279299,427.07654268329344,0.2741698343849083,-0.0004368218724413021,-0.9616811899481054
413.4246869063467,114.33572749834548,427.2397081330426,0.2638972061493453,-0.0004034886337917339,-0.9645507253553296
414.0119705878757,110.1000770063755,427.3986474019606,0.25335651999144077,-0.0003693388950494519,-0.9673729050198827
414.6088034863633,105.86559132297651,427.5529503865783,0.2425500666175073,-0.0003343836903937394,-0.9701388320087957
415.21491333423023,101.6322442029873,427.70220855105134,0.23148099682492965,-0.0002986368402187051,-0.9728393798181563
415.83000714645203,97.40000289616182,427.84601638199354,0.22015338341662838,-0.0002621151271612846,-0.975465232115359
416.4537693471041,93.16883754561661,427.9839727613611,0.20857229817509962,-0.00022483851794332881,-0.9780069252728214
417.08586256382597,88.93871292689221,428.1156830614095,0.1967438367389027,-0.0001868302147921809,-0.9804549086009652
417.7259273840706,84.70958860865079,428.2407610203881,0.18467515786866004,-0.00014811675149780529,-0.9827996052744493
418.37358266738084,80.48141651194578,428.35883076767243,0.17237450687517336,-0.0001087280368534624,-0.9850314804907275
419.02842486718004,76.2541460911728,428.46952869116797,0.1598512514655736,-6.869743635546417e-05,-0.9871411108273995
419.6900267584864,72.02773413101232,428.57250529318935,0.14711592237395266,-2.8061867355730012e-05,-0.9891192570143362
420.35794073311763,67.80212649638554,428.66742778608125,0.13418015808012598,1.3138412935315653e-05,-0.9909569541634867
421.03169693649653,63.57727443069257,428.75398180349816,0.12105673919836424,5.485973319059728e-05,-0.9926455877527833
421.7108086693204,59.35310633110191,428.8318740510435,0.10775947213884407,9.705541317330161e-05,-0.9941769896475198
422.3947675028344,55.1295654125384,428.9008335385785,0.09430326274916065,0.0001396755639756847,-0.9955435073996515
423.0830491446353,50.906581328413836,428.9606140656312,0.08070396990758569,0.0001826675861115995,-0.9967380979343112
423.7751103682455,46.684098529170285,429.01099560747053,0.06697842382241385,0.00022597614329993262,-0.9977543984754204
424.4703974194887,42.462035405391134,429.05178652475564,0.05314420727864536,0.00026954388279358207,-0.9985868117388792
425.1683409359005,38.24032704247708,429.08282451941596,0.03921969417503667,0.00031331133978312534,-0.9992305626955278
425.86836077736297,34.018908297496864,429.10397820886135,0.025223883042820607,0.00035721748560693694,-0.9996817634226954
426.5698706908752,29.797699133166304,429.1151482371036,0.011176225185829156,0.00040120028647998974,-0.9999374635590598
427.2722773517766,25.576624516316087,429.1162679609919,-0.002903441084703035,0.00044519692440728994,-0.9999956859054773
427.9749839400477,21.35560740493719,429.10730406832704,-0.01699505155318618,0.0004891443123547548,-0.999855454033505
428.6773920809345,17.134571929614822,429.088256881051,-0.031078447621251976,0.0005329795110966053,-0.9995168062750589
429.3789037331503,12.913447025529706,429.05916042834406,-0.04513350805786598,0.0005766401414859536,-0.9989807975814841
430.078925912997,8.692152931939802,429.0200821120629,-0.05914033696624494,0.0006200649655317956,-0.9982494858816396
430.77687016236985,4.470619034750769,428.9711223063094,-0.07307934393881997,0.0006631941268556321,-0.9973259094513797
431.4721564926886,0.24877433343527855,428.91241352882616,-0.08693140967279595,0.0007059696514213435,-0.9962140490974577
432.16421677634645,-3.973459572634681,428.8441192718666,-0.10067803429397527,0.0007483358885702599,-0.9949187772899349
432.85249416306203,-8.196152150573653,428.76643296446616,-0.11430139919579553,0.0007902396805636758,-0.9934458040895491
433.53644446290997,-12.419360216755194,428.67957666976895,-0.12778446010267064,0.0008316306253771417,-0.9918016133011539
434.21554290024943,-16.643158626054685,428.5837988238449,-0.14111113620674523,0.0008724616300026382,-0.9899933767703427
434.88928188926315,-20.86761710950543,428.4793728234355,-0.15426631138429928,0.0009126888827901564,-0.9880288822554154
435.5571709414212,-25.092790918602873,428.36659539651293,-0.16723586818802375,0.0009522719256961515,-0.9859164556744032
436.2187390000884,-29.318727832372872,428.2457844965211,-0.18000675895478785,0.0009911738383580418,-0.983664873981487
436.87354060835435,-33.54550179430407,428.1172762092982,-0.19256713899234823,0.0010293616084047573,-0.9812832605292829
437.52114752980043,-37.77315476840431,427.98142430256183,-0.2049062093666647,0.001066805617038746,-0.978781031328642
438.1611548636958,-42.00173229768376,427.83859712321697,-0.2170143304976453,0.001103479949873342,-0.9761677943318242
438.79318184277855,-46.231287164948355,427.68917530183097,-0.2288830231588527,0.0011393623642222362,-0.9734532672722749
439.4168676670182,-50.46185083203653,427.53355068267524,-0.24050486902218843,0.0011744339540192528,-0.9706472215390654
440.03187602321094,-54.69346389015675,427.37212326462947,-0.2518735680820698,0.001208679290726384,-0.9677593940623769
440.63789363081685,-58.92616830238774,427.20529950010894,-0.26298387719248506,0.0012420862058060503,-0.9647994286682933
441.23462835751604,-63.15999697177955,427.03349086638065,-0.2738315371957276,0.0012746455416376178,-0.9617768267720782
441.8218075156067,-67.39496455180199,426.85711255910786,-0.28441320108148754,0.0013063509085029306,-0.95870090460888
442.3991822044448,-71.63110284155948,426.67658042048595,-0.29472646820749643,0.0013371987614362356,-0.9555807243961171
442.966522691431,-75.86843317292374,426.4923105549969,-0.3047697541705659,0.0013671879863686833,-0.952425077231707
443.5236198199289,-80.10698267603146,426.3047172599526,-0.3145422688190764,0.001396319813015138,-0.9492424408006246
444.07028195921123,-84.34676802229421,426.11421247940655,-0.32404391496942814,0.0014245974932693038,-0.9460409672383475
444.60633284784586,-88.58778475587178,425.9212051901762,-0.33327520516694387,0.0014520260367672773,-0.942828472863076
445.13161697678044,-92.8300570693325,425.72609813357315,-0.3422373088603242,0.0014786123359711394,-0.9396123871733507
445.6459918521275,-97.07358481516354,425.52928932030363,-0.350931874476196,0.0015043646242953496,-0.9363997844743988
446.14933083613687,-101.3183737793155,425.3311698756131,-0.35936103628443317,0.001529292485767318,-0.9331973568678124
446.6415219933609,-105.56443527632234,425.13212337369055,-0.36752735403876274,0.001553406666598793,-0.9300114144251104
447.122463699977,-109.811756732069,424.9325266492823,-0.375433702399015,0.0015767187408552148,-0.9268479104259663
447.592067783538,-114.0603367580432,424.7327476801183,-0.38308328824102744,0.0015992411556335262,-0.9237124209937678
448.05025641438357,-118.31016668468942,424.53314606182676,-0.3904795666479748,0.0016209869784544436,-0.9206101674604867
448.4969639253284,-122.56125648372813,424.3340714862138,-0.3976262401157026,0.0016419698912052989,-0.9175460081687052
448.9321297598843,-126.81357676531172,424.13586622753445,-0.4045271181585938,0.0016622037753365136,-0.9145244927025805
449.35570498571894,-131.06712884325157,423.938861693876,-0.4111861970881257,0.0016817029448628785,-0.9115498248584168
449.76764471757014,-135.32187893692293,423.74338138118264,-0.4176075176685231,0.0017004817285247204,-0.9086259238810133
450.1679143190617,-139.57782891833642,423.5497375481713,-0.4237952427594207,0.0017185546974203118,-0.9057563904186575
450.5564835550168,-143.83496568806004,423.358233562431,-0.42975354794466686,0.0017359363458221378,-0.9029445578516845
450.9333258350122,-148.09325891493268,423.16916400720925,-0.4354865953967479,0.0017526410168009988,-0.9001935089075099
451.2984213037688,-152.3527035092822,422.982812859843,-0.4409985676075529,0.001768683002534144,-0.8975060641179663
451.6517516008873,-156.61326818927927,422.7994558824355,-0.4462935760767297,0.001784076280651276,-0.8948848311511762
451.99330259912864,-160.87493401227005,422.61935905018163,-0.451375693097088,0.0017988346096234342,-0.8923321959198662
452.32306192856726,-165.13767230601246,422.4427796636319,-0.45624890618849295,0.0018129713992355559,-0.8898503518774993
452.6410193786055,-169.40145645315414,422.2699660134518,-0.460917117249939,0.0018264997113654085,-0.8874413078760817
452.9471668041248,-173.6662690053161,422.10115730509295,-0.46538413523722866,0.0018394322419641891,-0.8851068992830889
453.24149645450217,-177.93208681347016,421.93658447918574,-0.46965364699627804,0.001851781239929361,-0.8828488108217255
453.5239991764415,-182.19885997342578,421.776471181889,-0.47372918790834434,0.0018635584258073054,-0.8806686003677513
453.7946679523736,-186.4665707264104,421.62103172953294,-0.4776141903529379,0.0018747751353891755,-0.8785676811673073
454.0534950580627,-190.73520091280085,421.4704726465137,-0.4813119403057237,0.0018854421975508535,-0.8765473525297188
454.3004701834584,-195.00470650116426,421.324993754642,-0.484825549330406,0.0018955698569542798,-0.8746088231497481
454.5355827433221,-199.27506192967974,421.18478682317703,-0.4881579868502859,0.0019051678705127434,-0.8727532012027577
454.7588202531833,-203.54624139762944,421.050036497844,-0.4913120565371912,0.0019142454424843898,-0.870981514594645
454.9701667383257,-207.81819406993918,420.92092126972733,-0.49429037393639147,0.0019228111632547922,-0.869294730819791
455.1696047843867,-212.09089029519856,420.79761223628304,-0.4970953957422009,0.0019308730965916744,-0.8676937473907426
455.3571141212975,-216.36430428526444,420.6802739388655,-0.4997294002624492,0.0019384387262185755,-0.8661794092268863
455.5326701900985,-220.63838891059652,420.5690652568405,-0.5021944679969412,0.001945514902741249,-0.8647525260356471
455.696244828791,-224.9130963851457,420.46413898214405,-0.5044924920487053,0.0019521078761218287,-0.863413872219648
455.8478068359934,-229.18840557351314,420.3656414201689,-0.5066251868405398,0.001958223322973582,-0.8621641870433994
455.98731952530693,-233.46426779428188,420.2737139292932,-0.5085940545592382,0.0019638662524430694,-0.8610041991165531
456.11474179852877,-237.74064442839406,420.1884921955497,-0.510400400963127,0.001969041053524262,-0.8599346216858632
456.23002727528353,-242.017493719462,420.1101067439314,-0.5120453237617045,0.001973751463481978,-0.8589561634442887
456.3331242388707,-246.29478414132146,420.03868289678906,-0.5135297124117186,0.0019780005687882922,-0.858069532138327
456.42397438735554,-250.57245974484783,419.9743415414073,-0.5148542305344967,0.001981790756085316,-0.85727544803647
456.5025134429687,-254.85048105370663,419.9171985983207,-0.5160193247662701,0.001985123738585004,-0.856574641085939
456.56866992173497,-259.12878659535903,419.8673657530833,-0.5170252066794502,0.001988000505141071,-0.8559678635977307
456.622365785702,-263.40736602201025,419.8249497770864,-0.5178718626219387,0.0019904213489304557,-0.855455885553041
456.6635141893992,-267.6861377707879,419.7900540323145,-0.518559018663882,0.001992385767475872,-0.8550395163741294
456.69202066832634,-271.96508081335674,419.76277728127934,-0.5190861585905149,0.0019938925140697353,-0.8547195939911434
456.7077813962416,-276.24411360360955,419.7432148278699,-0.5194524943717101,0.001994939513002183,-0.8544970019299939
456.7106833541896,-280.5232281738755,419.73145787373693,-0.5196569701743424,0.0019955238703474845,-0.8543726653128044
456.70060312754623,-284.80233920582816,419.72759433604836,-0.5196982372224158,0.001995641801062873,-0.8543475637243401
456.67740654486727,-289.0813995844624,419.7317084918902,-0.5195746489652988,0.001995288613736508,-0.8544227308399129
456.6409477406861,-293.36035594135893,419.74388130151516,-0.519284241882423,0.001994458653855772,-0.8545992617989295
456.5910684871915,-297.6391402057661,419.76419043412426,-0.5188247201549905,0.0019931452576558047,-0.8548783171469948
456.5275970814077,-301.91769300068495,419.7927104335644,-0.5181934349657566,0.001991340690094703,-0.8552611288493392
456.4503473732294,-306.19595222169943,419.8295128165755,-0.5173873630446271,0.001989036080092807,-0.8557490054316156
456.35911734552803,-310.4738657723061,419.8746663146287,-0.5164030792151952,0.0019862213379714957,-0.8563433392640252
456.25368914391083,-314.7513346906014,419.92823632294227,-0.5152367430832102,0.0019828851126131304,-0.8570456036545756
456.13382480594646,-319.0283347388286,419.9902864370643,-0.5138840367142795,0.00197901460762339,-0.8578573776050537
455.99926847030287,-323.3047627655669,420.06087662146194,-0.5123401716580911,0.001974595594920691,-0.858780326671259
455.84974199554256,-327.5805438783651,420.14006462471417,-0.5105998207299288,0.001969612212040562,-0.8598162267009726
455.684944049154,-331.8555914852775,420.22790551251967,-0.5086570855888909,0.001964046860624736,-0.8609669632454807
455.50454781463753,-336.129812145874,420.3244517739161,-0.5065054458876557,0.0019578800507953475,-0.8622345388534687
455.3081979989979,-340.40311665477657,420.4297536460327,-0.5041376965722322,0.0019510902099581862,-0.8636210836598633
455.095507783232,-344.6754205166807,420.54385928279373,-0.5015458803771512,0.001943653475931996,-0.865128864440364
454.8660562525528,-348.946627961948,420.6668144420964,-0.49872122184080075,0.0019355434922794469,-0.8667602878287676
454.61938730789694,-353.2165893514303,420.7986611270021,-0.49565407540368006,0.001926731241714869,-0.8685178899956206
454.3550000071604,-357.4852003521412,420.93944051659173,-0.49233376160730064,0.0019171845551743938,-0.8704043839417325
454.0723456944771,-361.75235527237044,421.08919188298916,-0.48874847918115316,0.001906867835047989,-0.872422654424545
453.7708267486088,-366.01788276425924,421.2479502534771,-0.48488523179125115,0.0018957418168745411,-0.8745757360879093
453.4497840249411,-370.2816373662448,421.41574955775775,-0.4807296021694468,0.0018837628869401866,-0.876866866197709
453.1084924618295,-374.54344685279705,421.5926208216527,-0.47626561828116926,0.0018708826585994904,-0.8792994715347744
452.7461497419637,-378.80313920914926,421.7785932627331,-0.4714755173414024,0.0018570472471063474,-0.8818771954887931
452.36186984960176,-383.0604886532471,421.97369195887325,-0.4663395587544506,0.0018421966769862708,-0.8846038787231872
451.9546631320978,-387.3152935664086,422.17794131553705,-0.46083563957447987,0.0018262637081978886,-0.8874836212904711
451.5234306604299,-391.56726559976886,422.391359902984,-0.4549390784511609,0.0018091731362864048,-0.8905207250763855
451.06693495633937,-395.8161356885801,422.61396548217596,-0.4486220537120752,0.0017908400752506758,-0.8937197803646202
450.5837851723933,-400.0615649106127,422.8457706156461,-0.44185320246005383,0.0017711686857214914,-0.8970856204606565
450.0724051113728,-404.3031740112896,423.08678404674833,-0.43459694305131236,0.0017500500752230697,-0.900623358799442
449.5309994570516,-408.5405195601918,423.3370093586331,-0.42681271800138293,0.0017273599333245476,-0.9043383879831337
448.95750856274805,-412.7730868247672,423.59644448985705,-0.4184540079096975,0.0017029554572930198,-0.9082363916993313
448.34955231113145,-417.0002663814409,423.8650802817681,-0.409467101801244,0.00167667151087346,-0.912323342524532
447.70435537427926,-421.2213372402541,424.1428993933339,-0.3997894839610289,0.001648315587609087,-0.916605504876497
447.0186578487274,-425.43538619748665,424.42987091939244,-0.38934785958425594,0.0016176616165012004,-0.9210893699354331
446.2885706317366,-429.64135486900744,424.72595353531267,-0.37805515011480334,0.0015844406064077303,-0.9257817199640735
445.5094170820395,-433.8378548901344,425.0310829031355,-0.36580700645391606,0.0015483296752537858,-0.930689441599313
444.6754683529901,-438.02316429608595,425.3451714276205,-0.3524763028125938,0.0015089348527839476,-0.9358195227025213
443.77960346846237,-442.19498450515783,425.6680908854115,-0.3379058983551522,0.0014657683467670785,-0.9411787584619361
442.81277319152827,-446.35024118369466,425.99965798452905,-0.3218974693041816,0.0014182135436013063,-0.9467734723395602
441.76318419883324,-450.4846873850447,426.3396053653451,-0.3041945581476094,0.0013654718223450931,-0.9526089471971608
440.61499530646324,-454.5921714228987,426.6875266596586,-0.28445560194646735,0.0013064778411970436,-0.9586883245544006
439.34607852756494,-458.6633593352977,427.04277908991946,-0.26220795124367147,0.0012397550617377078,-0.9650105975127856
437.9239685584121,-462.68302945968054,427.40427160985297,-0.2367650368558488,0.001163155153240049,-0.9715662429256885
436.29773241131977,-466.6241594798893,427.7699921830783,-0.20706116595327004,0.0010733377765942142,-0.9783274101751877
434.3799330178879,-470.4319397039113,428.13569040043785,-0.1712867024875159,0.0009646193929425427,-0.9852207544811366
432.03629431357405,-473.9270426255555,428.48584638197957,-0.12664867318970813,0.0008281470612603505,-0.9919472908132423
429.6483269235435,-476.2453564829605,428.73278258992235,-0.08037217348611969,0.0006857250991992855,-0.9967646881336666
427.2349313802027,-477.3589765886537,428.8693234353575,-0.03308242491409921,0.0005392099417619791,-0.9994524813188678
424.8155797183518,-477.2543604677228,428.89181175181835,0.0145340477371661,0.0003906948744182056,-0.9998942988205747
422.4099172693811,-475.9327503097003,428.800287138882,0.061770611701629737,0.00024238682201308762,-0.9980903429943779
420.03735599837273,-473.4101347802631,428.59847613886603,0.10794463400173274,9.646838613340615e-05,-0.9941569024475373
417.7609604327711,-469.79904454375117,428.3004098699979,0.15159675601577402,-4.2350842136963245e-05,-0.9884424220822879
415.91175646880555,-465.95321728343936,427.982767918825,0.18642542748484547,-0.00015372704196693813,-0.9824691019849374
414.3374838589497,-461.98742473715856,427.6588480385768,0.2155384708245136,-0.0002472533556846223,-0.9764953181968709
412.958150938377,-457.9497020045052,427.33447653861384,0.24058836610476705,-0.00032804425172275586,-0.9706271840835735
411.72645014660964,-453.8643406320598,427.01270888524374,0.26256385727017556,-0.00039916587371802007,-0.9649145358641935
410.6118523925753,-449.7451500321114,426.69533883316734,0.2821100721791314,-0.0004626222653791706,-0.9593819328899856
409.5933838128488,-445.6007173978104,426.3835107210462,0.29967486805585375,-0.0005198069208532278,-0.954041248194475
408.6559295762553,-441.43674230073213,426.0779993071745,0.3155841355167132,-0.0005717354502295399,-0.9488974267689545
407.78817962943793,-437.25718549096314,425.7793517256973,0.33008388265260424,-0.0006191757380493667,-0.9439514007799276
406.9814178333242,-433.0649213259814,425.4879684494341,0.34336521444164453,-0.0006627252392066486,-0.939201730357595
406.2287588167433,-428.8620892052781,425.2041492635393,0.3555801500475369,-0.0007028599737424734,-0.9346455279302569
405.5246525647847,-424.65032006605327,424.92812284881677,0.3668519667378509,-0.0007399665787456062,-0.9302790371442501
404.86455618887305,-420.4309299209814,424.660069102759,0.3772821367355288,-0.0007743637924480901,-0.92609804538234
404.2446853842784,-416.20493263615685,424.400126627598,0.3869555119463558,-0.0008063185814054732,-0.922098032545715
403.6618584089641,-411.97318248837564,424.1484066369469,0.3959437113229384,-0.000836056618357081,-0.9182744026015035
403.11336239399026,-407.73635103105914,423.9049950972032,0.4043079258602063,-0.0008637710262200409,-0.9146225204893177
402.59687293863465,-403.4950503645848,423.66996264433396,0.4121007268738805,-0.0008896279610143571,-0.9111378597512618
402.1103676554894,-399.2497312222365,423.44336087144876,0.4193678375938423,-0.0009137721716626567,-0.9078159404925003
401.65208520555944,-395.0008065348808,423.22523096770226,0.4261491168396676,-0.0009363300198655767,-0.9046524490116992
401.22048116422303,-390.7486631138788,423.01560526660654,0.4324795212279515,-0.0009574124805571732,-0.901643248230576
400.8141883068824,-386.4936200262716,422.81450605317025,0.4383899403042063,-0.0009771177626904113,-0.8987843487071592
400.4319929898295,-382.23597122133043,422.62194850301785,0.44390774793660853,-0.000995533017923899,-0.8960719392079292
400.0728082403146,-377.9759378110492,422.4379392118361,0.44905736508505567,-0.0010127361122799334,-0.8935023543496872
399.73566035707415,-373.7137209401335,422.2624792826907,0.4538605975488603,-0.0010287966668846903,-0.8910721068297501
399.4196760983902,-369.4495392543362,422.0955661326329,0.4583369434672386,-0.0010437770125103544,-0.888777900705602
399.1240651852399,-365.1835718022974,421.93719139097885,0.4625039473482343,-0.0010577333127252348,-0.8866165912543826
398.8481129569301,-360.91600261494796,421.7873429247798,0.46637739327762917,-0.0010707161596165196,-0.8845852025703737
398.5911670355345,-356.6469533755397,421.64600270675226,0.46997156932511974,-0.0010827714164014842,-0.8826808889016142
398.35263386881826,-352.3765408562547,421.51314922569117,0.4732993819349609,-0.0010939405643535646,-0.8809009583114469
398.13197398689374,-348.10491583106545,421.38875866651415,0.4763724798335563,-0.0011042610868161622,-0.8792428794506555
397.9286928869232,-343.8322053516672,421.27280308560427,0.47920143076505023,-0.0011137670354614,-0.8777042487510923
397.74233581067125,-339.5584951071535,421.1652502286151,0.48179583705157664,-0.0011224893955132406,-0.8762827805094241
397.572486410472,-335.2838870435892,421.0660652135761,0.4841643915661632,-0.001130456253974569,-0.874976321969929
397.4187617047933,-331.0084710456464,420.9752097816459,0.48631498050694755,-0.0011376931279253124,-0.873782836515386
397.2808103357919,-326.7323681946798,420.89264318304953,0.48825473584618684,-0.0011442231260443765,-0.8727004088902492
397.1583066941714,-322.45564013319483,420.81832035496507,0.4899901422091275,-0.0011500672954392612,-0.871727215293348
397.0509513743595,-318.17837152314183,420.7521936480631,0.4915270520196729,-0.0011552446615238985,-0.870861540396992
396.95846782098147,-313.90063494268486,420.6942121131381,0.4928707513451556,-0.0011597724400563322,-0.870101762667074
396.88060121932256,-309.6225316403604,420.644321995723,0.49402599138927483,-0.0011636661348406224,-0.8694463558569733
396.817114842486,-305.3440852400156,420.60246546290364,0.49499705570705754,-0.0011669397569928578,-0.8688938675655086
396.7677912824359,-301.06539593565765,420.56858233564765,0.49578775322931823,-0.0011696057951720185,-0.8684429375440326
396.7324288755149,-296.7865062980868,420.54260860855493,0.49640148170976056,-0.0011716754240734663,-0.8680922739738299
396.7108416921855,-292.5074970403118,420.524477215779,0.4968412354129018,-0.0011731585257539747,-0.8678406596216007
396.70285774299913,-288.22838271102296,420.5141174342779,0.49710964177165123,-0.0011740638093320375,-0.867686939876262
396.7083185626416,-283.94925736895436,420.5114553434086,0.49720896958676725,-0.001174398835344769,-0.8676300256156657
396.72707761418735,-279.670193943988,420.5164132153968,0.49714116060130853,-0.0011741701195024836,-0.8676688814061008
396.7590000747229,-275.3912092254718,420.52890973118025,0.4969078401043699,-0.0011733831662199758,-0.8678025245496553
396.8039614122756,-271.11238766318706,420.5488596706365,0.4965103355837019,-0.0011720425297514407,-0.8680300184756677
396.8618477233739,-266.833742206838,420.57617421180544,0.4959496827380433,-0.0011701518331109005,-0.8683504724111811
396.9325534591045,-262.55536300765505,420.6107600863005,0.4952266523033769,-0.0011677138575685777,-0.868763028272231
397.01598308405227,-258.277253850316,420.65252052599556,0.49434173896200634,-0.0011647305046333543,-0.8692668684143388
397.1120476936989,-253.99950290838441,420.7013537518152,0.4932952000595454,-0.001161202926306797,-0.8698611942177769
397.2206672302223,-249.72213385093372,420.7571541957788,0.49208703574051504,-0.0011571314581265474,-0.8705452373673074
397.3417682561278,-245.4451954014332,420.81981148795387,0.4907170152946011,-0.001152515708289915,-0.8713182441610531
397.4752849531963,-241.1687048956274,420.8892110545373,0.48918466799641525,-0.0011473545273777354,-0.8721794793360054
397.6211552579112,-236.8927569461847,420.9652321783481,0.4874893289958397,-0.0011416461637587492,-0.8731281983530381
397.77932620671174,-232.61734407167037,421.04775083250274,0.4856300788299294,-0.0011353880609634194,-0.8741636788551601
397.94974734184996,-228.3425418087078,421.13663628525916,0.48360582068883956,-0.0011285771191702986,-0.8752851743915008
398.1323744204253,-224.0683885891823,421.2317530590856,0.48141523789475704,-0.0011212095535610537,-0.8764919347101098
398.327168333634,-219.79491165340016,421.33296038039146,0.4790568065138271,-0.0011132809385702397,-0.8777831946091956
398.5340939000148,-215.52214668107507,421.44011155323375,0.4765288099332868,-0.0011047862588793049,-0.8791581613969623
398.7531188461717,-211.2501475874256,421.5530534303424,0.4738293516022263,-0.0010957199543386426,-0.880616003123947
398.9842174387606,-206.97890959304777,421.6716282709983,0.47095631010469025,-0.0010860757714469121,-0.8821558674134596
399.22736210999125,-202.70852044203366,421.79566941888146,0.46790744290910014,-0.0010758471142051419,-0.8837768199173668
399.4825331629817,-198.43897407028277,421.9250062601891,0.46468026578214483,-0.0010650266420247272,-0.8854779027795595
399.7497104769042,-194.17031481777514,422.0594599532591,0.4612721564366209,-0.0010536066204257812,-0.8872580727214596
400.028875874616,-189.9025853663008,422.1988446313026,0.4576803258459895,-0.0010415788276520778,-0.8891162097538513
400.320013780139,-185.63581175256707,422.342967706422,0.45390181039229366,-0.0010289345315206593,-0.8910511140312481
400.6231101813528,-181.37001508655067,422.49162932251716,0.44993348600614896,-0.0010156645400860149,-0.8930614909377161
400.9381480240351,-177.10526783673674,422.6446201066188,0.4457721305861493,-0.001001759413551685,-0.895145912167822
401.2651166264692,-172.84155817975204,422.80172576140177,0.4414143023316725,-0.0009872090609684304,-0.8973028692227126
401.6040028611107,-168.57890778079133,422.96272274729967,0.43685645802733547,-0.0009720031392211329,-0.8995307055846999
401.95479034138117,-164.31736993195398,423.12737798211145,0.4320949690601594,-0.0009561311095186224,-0.9018276018875232
402.31746390856,-160.05696653338492,423.29545102165866,0.4271260657895613,-0.0009395820551820536,-0.9041915953539342
402.6920084733191,-155.79769986947758,423.4666935200948,0.42194585763396886,-0.0009223447523623151,-0.9066205614840709
403.07840338682576,-151.53961043253491,423.6408467319295,0.41655041750802607,-0.0009044079543745518,-0.9091121667429939
403.4766262456279,-147.28272482511886,423.8176434024204,0.4109357380693825,-0.0008857602489878042,-0.9116638824732245
403.88665250527333,-143.02705518959033,423.9968077005214,0.4050977459019949,-0.0008663901087483265,-0.9142729710722622
404.30845108879316,-138.77263823500004,424.1780534696579,0.39903237500151223,-0.0008462861375627066,-0.916936446816477
404.74198801529667,-134.51948998943686,424.361086043305,0.39273552823535635,-0.0008254369450764755,-0.9196510879216886
405.187227713368,-130.26758917933165,424.54560296305203,0.38620307117833713,-0.000803831128899482,-0.9224134331567034
405.644120375156,-126.01699101701416,424.73128902687057,0.3794310341204183,-0.000781457944381985,-0.9252196926513135
406.11261553750546,-121.76768880685876,424.91782231136,0.37241543244547115,-0.000758306711172404,-0.9280658223678881
406.59265139008215,-117.51970751728976,425.104870189926,0.365152445396185,-0.0007343674043708816,-0.9309474487454713
407.0841615976769,-113.27303431547625,425.29209251511634,0.3576383374278571,-0.000709630394516775,-0.9338599017125327
407.5870639740112,-109.02770980542635,425.4791378013776,0.34986965673995246,-0.0006840871001334586,-0.9367981401121093
408.1012735124513,-104.78370809503895,425.66564877852045,0.341843064447048,-0.0006577294230572787,-0.9397568231630232
408.62669149539397,-100.54102324256388,425.85125891602456,0.33355553222935,-0.0006305503955305855,-0.9427302420763821
409.16320566680406,-96.29965807663302,426.0355933431844,0.325004375264801,-0.000602544282889675,-0.9457123204226131
409.71068664972466,-92.0596430871538,426.21826857069686,0.31618734763374284,-0.0005737068892416,-0.9486965964188676
410.2689983539982,-87.82094789778148,426.3988969312825,0.30710251421527845,-0.0005440351306978117,-0.9516762841368022
410.83798528004996,-83.58357326044268,426.57708330697665,0.2977484953863555,-0.0005135278267934377,-0.9546442110987383
411.41747808191843,-79.34750059426597,426.7524281172783,0.2881244209873905,-0.00048218553852295663,-0.9575928600025105
412.0072876436892,-75.11272884285728,426.9245267137814,0.27823007331561633,-0.00045001102143497836,-0.9605143537672237
412.6072110012648,-70.87922484313088,427.0929724694371,0.26806583497258246,-0.00041700904091505523,-0.9634005056174259
413.2170247086727,-66.64696534763846,427.25735620836383,0.25763284675509984,-0.000383186868892584,-0.9662428108093154
413.8364823092283,-62.41594752198,427.41726716556934,0.24693310048503656,-0.0003485545648012727,-0.969032467151933
414.46532168579915,-58.18613309284774,427.572296554865,0.23596936015793576,-0.00031312469867361453,-0.9717604452845245
415.1032580730318,-53.957492355612544,427.7220373883319,0.2247453276131085,-0.00027691286432733744,-0.9744174983216086
415.7499892193137,-49.72996617494704,427.8660874672618,0.2132655957513971,-0.00023993750295146698,-0.9769942313538992
416.40518202256175,-45.50355050868353,428.00404825364285,0.20153592667710063,-0.00020222077146948421,-0.979481102097004
417.0684873081919,-41.27819724403474,428.13553017129914,0.1895630274929214,-0.0001637877899620827,-0.9818685409876813
417.73953218616464,-37.0538636162712,428.260152826234,0.17735471726996374,-0.00012466714823066303,-0.9841469853229208
418.4179216697334,-32.83050180482303,428.37754737132144,0.16491992413911333,-8.489086325339014e-05,-0.986306955980485
419.1032390228218,-28.608058146064593,428.4873585791411,0.15226869753927705,-4.449438448442553e-05,-0.9883391329750846
419.7950474400209,-24.386465466396714,428.5892470941195,0.13941218750689938,-3.516493228078713e-06,-0.9902344378793212
420.4928859118397,-20.16567203852344,428.68289082170793,0.12636272328647633,3.800048205326453e-05,-0.9919841030579012
421.19627507226824,-15.945610699442113,428.7679877900321,0.11313369717953971,8.001107154549291e-05,-0.9935797704063406
421.90471456027177,-11.726221095552319,428.8442576873398,0.09973959574674782,0.00012246659952714722,-0.9950135667628897
422.61768322904726,-7.507455449753024,428.91144384691086,0.08619596833839095,0.000165315319287029,-0.9962781879139242
423.33464875415586,-3.289230340472102,428.9693158916468,0.07251920550336942,0.00020850314690928258,-0.9973669943203445
424.05506338631477,0.9285379119195909,429.0176707307194,0.058726568976474124,0.00025197359500019105,-0.9982740738923147
424.7783618065312,5.145910162066741,429.05633395949843,0.04483617389680729,0.00029566785759374504,-0.9989943093385534
425.5039684388912,9.362955621846709,429.08516170213915,0.030866780355497007,0.0003395254923730576,-0.9995234497463906
426.2313004697068,13.5797566181339,429.10404171704795,0.016837657770439704,0.00038348486711592395,-0.9998581630512212
426.9597684312076,17.796398580708,429.112894178445,0.002768489328517165,0.0004274834757088239,-0.9999960763546604
427.6887767990364,22.012959715406794,429.1116723432434,-0.011320728973434677,0.00047145826715122764,-0.9999358073509583
428.417725855211,26.229507612204884,429.1003630704205,-0.02540981758666442,0.0005153460585213629,-0.9996769856251829
429.1460218012806,30.44614333407651,429.07898681399223,-0.0394787042967201,0.0005590844447367314,-0.9992202556652041
429.8730661997462,34.66292591235083,429.04759773821667,-0.05350731572917451,0.0006026114591997861,-0.9985672756619292
430.5982722135504,38.87995216803432,429.00628292237917,-0.0674759847763053,0.0006458668340057506,-0.9977206895391619
431.32105299929435,43.097275443777846,428.9551623110835,-0.08136531704573674,0.000688791574505558,-0.9966841078035775
432.0408392540227,47.31499434753084,428.8943868908162,-0.09515661367205386,0.0007313292527005268,-0.9954620455004759
432.75706490016336,51.533156477554996,428.82413870273155,-0.1088316745971887,0.0007734253796014624,-0.9940598917658602
433.46918760688646,55.75186700433352,428.7446278405283,-0.1223732614624569,0.0008150288089645442,-0.9924838137758628
434.176670600462,59.971170646712096,428.656092833236,-0.1357648112614925,0.0008560908289452637,-0.9907407244741804
434.8789972281339,64.19112747342416,428.5587976960046,-0.148990765714965,0.0008965661463806527,-0.9888381808470048
435.5756739974472,68.41182312630741,428.4530295970449,-0.16203666765696365,0.0009364131482749756,-0.9867842932804731
436.26622163479965,72.63330754178486,428.3390983157493,-0.1748890227547589,0.0009755934452761604,-0.984587668995156
436.9501878355506,76.85566615634639,428.2173323827429,-0.18753555726743268,0.001014072624026395,-0.982257291353496
437.62713388507416,81.07893292165886,428.0880793719066,-0.19996497861388984,0.001051819482289059,-0.9798024806070473
438.29664439684956,85.30314565027197,427.9517023659902,-0.212167156899229,0.0010888065474655105,-0.9772327829302494
438.958332192689,89.52837516631399,427.80857675890303,-0.22413320254697286,0.0011250102752216795,-0.9745578699430415
439.6118264398172,93.7546491183711,427.65909064549805,-0.23585523237209294,0.0011604103060052484,-0.9717875090834557
440.25678291237733,97.98201700283153,427.5036406471003,-0.24732653079880085,0.0011949899199680378,-0.9689314522514587
440.8928790968592,102.21052020670288,427.3426309360932,-0.2585414294837161,0.0012287356405881072,-0.9659993889486899
441.51981390707886,106.4401918914499,427.1764714029646,-0.2694952662089037,0.0012616370807552537,-0.9630008877269367
442.1373085772115,110.67106592063294,427.0055755468754,-0.2801843599261917,0.0012936868392013465,-0.9599453374162054
442.7451062898897,114.90317861432544,426.8303587175823,-0.2906059597916974,0.0013248803206055016,-0.9568418995976727
443.34296718145407,119.13653843612678,426.65123784143566,-0.3007581137296784,0.0013552153177307763,-0.9536994916729318
443.9306753381945,123.37118026131577,426.46862773692294,-0.31063974070023387,0.0013846922053626144,-0.9505267140513136
444.5080305394684,127.60711314323476,426.2829420045156,-0.32025044215364823,0.0014133133566626213,-0.9473318620450538
445.0748503439118,131.84434068388845,426.0945910141393,-0.3295904908170603,0.0014410830925561929,-0.9441228901167952
445.6309744332476,136.0829014324891,425.90397901928327,-0.33866085405533697,0.0014680077345617178,-0.9409073657293798
446.17625147984745,140.3227771980337,425.71150731577444,-0.34746293274714285,0.0014940948151011514,-0.9376925285227764
446.7105494554161,144.56397801915483,425.5175696236593,-0.35599868679391644,0.0015193534388414987,-0.9344852200897212
447.23375045917584,148.8065112539195,425.32255274251884,-0.3642705081074625,0.001543793895505948,-0.9312919057006451
447.7457486453523,153.05037254597164,425.12683636264677,-0.37228114850208016,0.0015674274384497105,-0.9281186829501912
448.2464506520299,157.29555689408704,424.9307920459842,-0.3800336898352423,0.0015902661898920614,-0.9249712782803887
448.73577781715704,161.54208683373332,424.73478150083747,-0.3875315427872022,0.0016123231314550865,-0.921855034026007
449.2136554138699,165.78992777878995,424.5391601547066,-0.3947782496526619,0.0016336115197434192,-0.9187749805662881
449.6800236642838,170.03909122318083,424.34427213058507,-0.401777624378317,0.0016541452956870281,-0.9157357721265761
450.13482620624706,174.2895402710713,424.15045439825394,-0.408533551035819,0.0016739384907220778,-0.9127417683047013
450.57802116679704,178.54129945697548,423.958031623142,-0.41505012548031395,0.0016930056413594263,-0.9097969702470294
451.009567418058,182.79433444984835,423.76732158286643,-0.42133142948546953,0.0017113611273932051,-0.9069051206001776
451.4294328682528,187.0486372949897,423.5786312630052,-0.42738163474257373,0.001729019477389698,-0.9040696592500006
451.83758684689354,191.30415800045392,423.3922599221666,-0.43320487543638225,0.0017459949977633518,-0.9012937852884687
452.23401073728104,195.56092219514653,423.20849398362606,-0.43880538535205094,0.001762302174356502,-0.8985803960008721
452.61868096787776,199.81885973247006,423.0276146039137,-0.4441872427753961,0.001777954931238207,-0.8959322140831044
452.991585814203,204.0779920452228,422.8498897096101,-0.44935459682612955,0.0017929672924156227,-0.8933516841532874
453.3527116845258,208.3382906523164,422.6755802341355,-0.4543114646680846,0.0018073527944893,-0.8908410781654694
453.7020454472508,212.59970496141653,422.50493899061144,-0.45906175771239405,0.0018211245665870092,-0.8884024910542069
454.03957946378233,216.86223043243604,422.3382081193847,-0.4636093431490524,0.0018342955119683682,-0.8860378165207615
454.3653055373931,221.12584378567476,422.1756219474945,-0.46795795530567574,0.0018468780541987682,-0.8837487997771675
454.6792156836797,225.3905172852747,422.0174065927427,-0.4721112020600005,0.0018588841593708124,-0.8815370425791212
454.98129873127726,229.65617604563727,421.86378167719806,-0.4760725168552894,0.0018703252010479302,-0.8794040371630735
455.2715507825235,233.92285227735897,421.71495499285055,-0.4798452929287758,0.0018812123513730953,-0.8773511018367653
455.5499593146608,238.19046677430367,421.57113058934993,-0.48343267268830553,0.0018915559761838187,-0.8753795022694046
455.8165167793798,242.45903335262665,421.43250183154527,-0.48683772335745745,0.0019013661453801372,-0.8734903639553839
456.0712076010265,246.72846517729835,421.2992581330508,-0.4900632683711268,0.0019106521500537107,-0.8716847723814902
456.31401968987717,250.99876433574252,421.1715790002189,-0.49311203397517855,0.0019194229280845563,-0.8699636991073166
456.5449373902761,255.26991904388694,421.04963771728507,-0.4959865583294826,0.0019276868052120586,-0.8683280589616207
456.7639378354398,259.54183442616943,420.93360332546354,-0.49868914708122786,0.0019354513704854571,-0.8667787425931659
456.9709994918158,263.81449742243205,420.82363613496125,-0.5012219796972833,0.0019427237846929319,-0.8653165622433402
457.1660973619829,268.0879028060162,420.7198902735808,-0.503587049122708,0.001949510609332383,-0.8639422916863528
457.3491997777035,272.36198752770866,420.6225154196531,-0.5057861233987242,0.001955817698968946,-0.862656694261639
457.52027233026155,276.6367211799127,420.531654727957,-0.5078207937262347,0.0019616503414456436,-0.8614605001897621
457.679274471386,280.9120344865833,420.44744663984415,-0.5096924336455336,0.0019670131428287997,-0.8603544350695178
457.82616463684263,285.18796989366604,420.37002217210085,-0.5114022590132316,0.0019719102010721883,-0.8593391885898853
457.9608893056618,289.46438389633806,420.29951068290535,-0.5129511996773213,0.0019763447400333776,-0.8584154942748093
458.0833947050624,293.74129467879663,420.2360336731531,-0.5143400353792398,0.001980319500131758,-0.8575840520559834
458.1936176034764,298.0186163318869,420.17970958387883,-0.5155692881660713,0.001983836431404942,-0.856845594896154
458.29148992840743,302.29632514683937,420.1306513368928,-0.5166392739064577,0.0019868968418982457,-0.8562008601364214
458.37693631242126,306.57440092901516,420.0889675596373,-0.5175500722305078,0.0019895013122761328,-0.8556506089629836
458.44987271684045,310.852773990408,420.054763167049,-0.5183015097349527,0.0019916496481937954,-0.8551956374644036
458.51020721001714,315.1313710225681,420.02813884471175,-0.5188931660180244,0.001993340897657047,-0.8548367732215646
458.5578401577161,319.41018720458555,420.0091909144962,-0.519324370637407,0.0019945733420914887,-0.854574876613655
458.59266163809536,323.68914206247814,419.9980123516256,-0.5195941730839466,0.0019953444099684472,-0.8544108577832419
458.6145522949681,327.9681826184158,419.99469225793814,-0.5197013456862841,0.0019956506842128516,-0.8543456728223138
458.62338222706074,332.2473046740023,419.99931629763347,-0.5196443642849637,0.0019954878456880662,-0.854380332577438
458.61900989922515,336.52638235932693,420.0119666297178,-0.5194213959195938,0.0019948506363120654,-0.8545159062486078
458.60128170541384,340.80542809603645,420.032722401127,-0.5190302769173889,0.0019937327942870496,-0.8547535297807219
458.570031309311,345.0843186785304,420.06165907542805,-0.5184685081654621,0.0019921270379400424,-0.8550944026658955
458.5250775601006,349.36306125944867,420.0988498259712,-0.5177332101265053,0.0019900249339470867,-0.8555398079182909
458.46622495954875,353.64155340074666,420.1443641332233,-0.516821128628302,0.001987416910066198,-0.8560910998120431
458.3932613859348,357.9197336864122,420.1982688811133,-0.5157285893740521,0.0019842921206021918,-0.8567497211479153
458.3059575703393,362.19751240242283,420.2606277944063,-0.514451481665748,0.0019806383946099973,-0.8575172010423268
458.20406428074455,366.4748403763664,420.3315024794069,-0.5129852058903159,0.0019764420795671278,-0.8583951725250886
458.0873120316058,370.75163561067933,420.41095150381653,-0.5113246566573192,0.0019716879860240282,-0.8593853663757375
457.95540837400597,375.02782454151816,420.4990310689272,-0.5094641684695667,0.0019663592239188314,-0.8604896248514654
457.80803713664915,379.3032987804649,420.59579418079164,-0.5073974871548826,0.001960437111345939,-0.8617098970739763
